# 3D point list with one line of data per point:
#   POINT3D_ID, X, Y, Z, R, G, B, ERROR, TRACK[] as (IMAGE_ID, POINT2D_IDX)
# Number of points: 384, mean track length: 4.771851851851852
408 -3.6985928366156244 -4.0906529574482979 5.7026591463628709 143 143 143 0.10231779330459477 6 208 16 12 19 12
404 3.6857023180821358 -4.0915666412450342 10.978937698426678 158 159 153 0.2198362686337941 7 508 9 855 20 730
403 0.92450571575666773 -3.1290865022000434 9.8787810601013355 181 182 174 1.2447428167077634 11 366 9 841 20 698
401 -3.6288001546617852 -1.2625344666118135 7.6386346128777403 167 169 170 1.9338933979740094 14 567 17 567 9 816 21 723 20 706
400 -3.476716960820923 -1.4695662682921893 7.7008302111758926 193 194 176 0.1358518986150325 14 643 17 643 9 809 21 676
399 1.3888693225050046 -3.2192632815059743 9.9785030745571994 180 181 176 0.78171015220031592 7 431 9 763 20 524 21 643
398 1.1217179578236904 -3.684627509638208 9.4469970919384796 147 150 152 0.38616727865786354 14 605 17 605 9 760
397 3.8300611660285959 -4.0694487627705236 10.996447646636195 153 153 145 0.17520998894094938 7 427 9 714 20 594
396 -3.1108474279407914 0.45528366998353664 8.0618319366373932 86 68 44 0.70147527152442757 7 421 9 702 20 382
395 -3.1108474279407914 0.45528366998353664 8.0618319366373932 86 68 44 0.70147527152442757 7 420 9 701 20 381
393 -5.8351905782853839 -0.86021445864244073 6.7203012223944212 175 172 165 0.55924971862405037 6 366 9 665 1 750 20 541
392 -3.4519683131635182 0.1364357777312743 8.4406579045801529 156 141 122 0.2403487241399834 7 283 9 621 20 196
391 -3.4859694843158904 -0.025661093146957248 8.6480276239814504 161 143 123 0.57189191369548975 14 544 17 544 9 617 20 194
390 -3.577124976831711 -0.10871373956875352 8.7144848589504473 157 150 137 0.41626930696017295 7 280 9 616 21 433 20 370
389 -4.4728378896158167 -0.53264566174024797 7.6987798823283926 144 135 130 0.3426857916150266 6 318 9 613 20 484
388 -5.8841122474270806 -0.74435066983039855 6.7798163110037644 200 195 189 0.5653746475961211 6 75 9 574 1 601 3 532 2 860 9 666 20 326
387 -2.6478397139258631 -1.8492480444804387 8.2001482793783378 193 200 192 0.44909636347579379 6 373 9 555 10 523 5 612 1 264 3 548
386 1.5938120451431175 -3.279077110856762 10.139352000240331 168 164 162 1.6358173314090401 14 557 17 557 9 550
385 1.5273577031738721 -3.3100039345172751 10.080662308952389 55 56 53 0.23692483694958483 7 302 14 509 17 509 9 549 20 285
384 1.4642927698804806 -3.3272865721086244 10.020951944794664 181 181 181 0.68057895604098451 7 230 14 508 17 508 9 548
383 0.88253102931303218 -3.0853712382822196 9.7995710561262559 185 186 178 0.15139674301005981 18 360 9 544 15 360
382 0.76979244834374516 -3.0911795208245429 9.7420347435416232 158 160 155 0.67719322106022861 18 286 9 543 15 286 21 495 20 282
381 4.0747185994389703 -4.282148671151174 11.132549379318863 107 107 110 0.27146933535825929 7 226 9 533 20 427
380 -3.1258505838061859 -5.4034983640239806 5.0893674384915224 158 161 166 1.0300269465348382 7 149 9 515 2 829 3 618 21 565
378 -3.4802027974292558 0.17408856582233923 8.3936861415347686 106 91 72 0.17671628449148177 7 198 9 474 21 436
377 -3.9815418609490636 -1.2006201648880772 7.4830952093764971 103 98 91 0.185390057960896 14 434 17 434 9 411 21 151
376 -2.6601145838349609 -1.8159788638969578 8.193292585011072 141 144 137 0.48273952704354678 6 256 9 375 16 452 19 452 10 377 5 611 13 212 1 307
375 -6.0423240031818866 -0.56200410667095935 6.6676177870169235 125 119 107 0.21095367546702812 14 40 17 40 9 128
374 -4.5012472019387948 -1.0281987261965362 7.2690915012795694 97 89 78 0.18841402059242016 6 135 9 105 20 116 21 147
373 -3.5926339929355025 -1.3632254069927576 7.6407021166146549 186 187 180 0.54956917358693513 7 11 9 78 21 154 1 255
49 -4.8130449686619361 -0.93520273240242224 7.1444184419305907 115 110 106 0.4606812841742241 17 571 7 387 14 571 15 444 18 444 11 219 12 212 4 297 6 309
590 -2.098008846691966 -1.4332955894659993 6.0603484261098348 39 0 3 0.22965874595223335 10 803 5 888
50 -4.4672266907629243 -1.0644804222256004 7.2741180534734431 204 194 182 0.44476733132324814 17 572 7 324 14 572 15 377 18 377 11 221 12 214 4 299 6 486
57 -5.1109008673144007 -0.77970809104274474 6.9734667338662799 154 149 143 0.60971378269616394 17 583 7 340 14 583 11 216 4 368
598 -2.4891091118896074 -1.9137169829361458 8.2758253551134242 185 175 162 1.2429592451519733 6 377 10 525 5 736 12 217 16 538 19 538 13 557 1 630
599 -2.1040760381371588 -2.0782437100010807 8.472181929477518 121 105 84 0.67510790222641326 11 86 4 199 6 266 10 533 5 632 15 282 18 282 12 118 16 382 19 382
58 -4.9587527948080066 -0.83396532949091573 7.0525919493468434 155 152 147 0.86404888370048616 17 584 7 321 14 584 15 442 18 442 11 220 12 211 4 317
143 -5.8364490336230288 -0.76415997976541628 6.7961459883960655 173 170 165 0.6139656755934163 14 575 17 575 15 415 18 415 11 266 4 291 6 509 2 964
684 -1.7252610571328613 -3.0866971983492553 7.9464639996777215 174 167 159 0.92024596977319073 10 750 1 893 3 774
144 0.092173669402190961 -2.6582118099170242 9.3428476036830936 116 117 106 1.3637880243044647 7 308 15 420 18 420 12 275 4 323 6 285 10 664 21 101 20 306
145 1.0817036276314111 -3.1575362152722986 9.8959314426463134 73 74 69 0.1402825202016095 7 300 14 507 17 507 15 421 18 421 11 199 9 546
686 -0.72645557940488714 -2.5663936840243324 9.1527706208634605 165 156 143 0.62218684654248335 13 705 1 926 2 974 21 678
146 -7.2924565487914847 -0.091247367672102619 6.0935887779970752 194 185 168 0.12553613187087148 7 406 15 426 18 426 12 200
687 -0.62237495874322324 -2.5835391509658767 9.1631862698758599 169 162 152 0.33399183596038218 13 706 1 928 3 808
147 -4.9373350318794449 -0.88630067612161834 7.079270668633165 209 205 193 0.56691264260456775 7 323 15 441 18 441 11 218 4 296 9 668 20 454
688 -2.6729031229986826 -1.8328584934756744 8.1452281369860167 192 189 180 1.1462537923881515 13 704 1 941 3 783
148 0.42336005947689248 -1.5348159608979008 10.505828071046711 110 110 102 1.0287257086223403 14 512 17 512 15 451 18 451 12 237 11 172
689 -0.94703363471503754 -3.4480844047403378 8.7110570515142314 148 148 146 0.18662993657256849 13 723 1 958
149 -0.62799046898153466 -2.5884172939469279 9.1809788872704878 186 182 173 0.45633077329357391 14 559 17 559 15 469 18 469 12 270 4 356
150 -0.62627565535563212 -2.5908330334050151 9.1942679072049831 186 182 173 0.35341866775887115 14 560 17 560 15 470 18 470 4 357
691 -0.76601336750689564 -2.5351454677868106 9.0187564667974964 151 143 130 1.6005820955455217 6 605 1 965 3 852
151 1.1508047126234007 -3.1073239770769532 9.8359420242841029 163 160 151 0.3528338405807388 14 608 17 608 15 473 18 473 11 302 7 430
152 -6.8460978527286507 -0.23409757495039654 6.2204085405171812 197 189 168 0.6245343429959237 14 656 17 656 15 475 18 475 11 259 16 571 19 571
153 -4.5377719480856573 -1.0450892889670997 7.2608328188549631 201 199 184 0.65541752337331127 7 389 15 482 18 482 4 298 14 515 17 515 6 485 9 670
154 -4.0157200587582063 -1.2343388194507128 7.4766546120390398 200 197 181 0.41550621929657711 7 379 14 565 17 565 15 483 18 483 11 278 9 734
695 -3.3534155132376182 0.27082077296732876 9.3546130497258666 114 102 86 2.7215231868048027 13 740 1 976
155 -5.3871392133811851 0.54925031010204028 7.9181049931096856 131 127 116 0.54434731178455076 14 664 17 664 15 487 18 487 11 317
156 -2.2838671832048041 1.3191435606126296 7.0188316192695597 121 103 89 0.086884868584650582 14 637 17 637 15 492 18 492
157 -2.2838671832048041 1.3191435606126296 7.0188316192695597 121 103 89 0.086884868584650582 14 638 17 638 15 493 18 493
158 -0.86194156001421207 -3.1521194688369421 8.521554485418724 142 138 129 1.3376526352229914 14 672 17 672 15 496 18 496 12 301 4 280 21 705
699 -1.4663373805854132 -1.5322476464408603 9.2504530491101065 93 78 59 1.3839970106775148 8 464 1 994
162 -6.4764777857887506 0.93504664252767833 7.4301310295361898 133 126 115 0.92743127637094347 14 682 17 682 15 523 18 523 12 314 11 335 4 411 7 501 6 540 9 852 16 610 19 610 10 719 5 836 8 386
703 -3.157689087890811 -5.406143077559987 5.0380819588034402 146 148 147 0.32831697302917134 6 341 3 13 2 475
163 -0.74196989288713644 -3.2791994743485349 8.495830560721954 153 153 153 1.734045941956039 14 671 17 671 15 529 18 529 4 422 3 849 2 1066 21 732
704 -6.44629540585023 -2.0285872034904284 5.3128470203504836 171 172 166 0.2384833962321232 9 345 3 56 21 309
166 -0.53945065726847907 -2.5751935181171688 9.2354392802345728 182 175 167 1.1299381735425389 14 704 17 704 15 536 18 536 12 342 4 446
707 -0.42304806574680121 -2.9913299988950905 9.0205468613565749 151 152 147 0.43427550735084586 13 538 3 168 2 171 1 753
171 -5.7897570544009511 -0.37054261704423958 6.7657159628657828 149 146 139 1.2553809751850991 14 733 17 733 15 568 18 568 11 398
712 -0.82904246025731776 -3.1213286118658399 8.6137977088549995 153 150 139 0.18582877366236272 1 737 3 486 2 144
179 -5.8957770742894144 -0.59805998168191021 6.7163941597083818 172 160 146 1.0331889952948852 7 181 11 9 4 240 14 529 17 529
720 -5.9721881272429886 -0.76271348959194163 6.7161528304341997 194 190 178 0.45936371708849744 9 571 3 530 2 738 21 326
180 -4.4282528246966555 -1.0781114162622856 7.29020965118172 183 176 158 0.46375619854286093 7 15 11 11 12 24 4 118
721 -5.9284427900329426 -0.64794037621682588 6.7728725592556911 109 102 92 0.31539920895184431 1 249 3 533 2 772
184 -6.7037507477155636 -1.7988858595234283 5.2868414497092262 192 187 183 1.0121740195227029 7 222 11 76 12 11 4 18 10 64
725 -1.3044707988431459 -1.153272504109188 9.5630366300979457 47 32 13 0.78801774816623371 1 682 3 591 2 395
187 0.48526881651125708 0.084343415542754652 8.46939290276765 141 136 132 1.9004249916927716 7 197 14 481 17 481 11 114 16 409 19 409
728 -0.3300591572981581 -3.341831808109057 8.8218231035986197 145 146 140 0.31187475008689747 6 356 3 635 2 543 21 321
197 -4.4491163832106508 -1.0294273801693998 7.2785203273274934 148 141 133 0.20962091885809975 14 442 17 442 11 162 4 211
208 -6.3632190427824913 -0.35869062684241293 6.4363661618175882 152 142 130 0.39632483743528762 15 370 18 370 11 263 4 365 14 591 17 591 16 441 19 441
217 -4.9782602855465319 -0.89748249681301728 7.0723838120290834 215 206 191 0.96965275914843219 7 473 11 326 12 290 4 384 20 704 21 719
758 -1.7979443022630017 -1.2490627775547396 5.3400193991067573 128 122 97 1.2212055337705632 13 62 2 82
218 0.20786495311355074 -2.650822924873169 9.3623431732418823 124 119 113 1.0417062044531653 15 541 18 541 11 346 6 592
759 -1.3794839236260172 -2.6093001506034641 8.6074893415886127 124 112 90 0.37162491552606036 1 225 3 162 13 454 2 193
224 0.33556941666177098 -2.899306972318715 9.4739250438738178 183 180 170 1.1777243665226675 15 547 18 547 11 381 4 451 6 606
765 -5.79411309147783 -0.79126697627415488 6.8380843413589307 191 185 173 0.3519098410722496 3 535 2 571 21 382
234 -2.1040221578046934 1.5727258806947315 6.8042886074699895 177 161 148 0.54807194348584731 11 121 12 34 4 154 15 206 18 206
775 -1.9745693780201314 1.6209113874818843 6.7481117989091608 180 157 151 0.98791040500645944 9 285 2 804 21 241
235 -1.6605462372326905 -5.7949242649760571 5.8119765967195294 103 103 101 0.57274367117311098 11 0 12 44 9 6
776 -4.4527021792833628 -1.3614174938658081 7.3257917392638996 189 188 183 0.24849480815430836 6 255 2 853 21 490
249 -2.3458186135737784 1.2550480647365063 7.0900962452138874 116 92 87 0.30120164109976227 14 490 17 490 12 178 16 402 19 402
253 -4.2309696095916562 -3.9807392861807251 5.4138330296810802 148 149 145 0.33365734181969475 15 406 12 187 18 406 6 440 21 567
794 -0.54975778944787168 -2.6529020273496968 9.1946869497478243 102 99 94 1.2120218536841667 13 487 1 335 2 605 3 677 10 542
159 -5.0369977218655286 0.42105564481648239 8.0847651224080721 127 123 111 0.52568145293707091 14 661 17 661 15 506 18 506 12 296 4 413
700 -1.961591996325561 0.85006507850531043 7.7115063752817399 76 60 37 0.50803563956817621 8 365 1 854
673 -1.703609247036509 -3.121587310354387 7.9605821640276027 169 162 154 0.73877505792156406 5 579 13 529 1 731
132 -6.7356747185392063 -1.7714449290408916 5.3107204247936224 198 199 191 1.5408663046654254 7 372 15 340 18 340 4 100
160 -5.5572587920942311 -0.60367769300243201 6.8102889083758305 149 144 140 0.81832912947007075 14 680 17 680 15 520 18 520 11 348 12 288 4 392 10 759
674 -1.9809749708220437 -2.1816175315727717 8.4815529782485122 170 161 144 0.49862220809763724 5 623 1 767 3 665 2 755
133 -7.3110267813094403 -0.14205129389899324 6.1140089746844932 129 120 105 0.53006083416100513 14 545 17 545 15 361 18 361 11 149 12 193 16 434 19 434
161 -4.0576515858720832 -0.65804998410956372 7.9005177933825177 151 152 154 0.90148077404424276 14 678 17 678 15 522 18 522 11 350 9 860 7 497 2 1057 20 746
702 -1.5050240094063878 -1.5788033238052277 9.3219271453103527 93 78 59 2.4745021202367408 10 825 1 995
675 -1.3331069810633083 -2.5618838613916441 8.681077327623715 122 107 88 0.41414518128177347 6 244 10 491 13 553 1 770 2 557
134 -7.3076519137267164 -0.14153459104287638 6.1121664164915597 129 120 105 0.03843601473340949 14 546 17 546 15 362 18 362
164 -2.1191337883182122 -2.7510522087253211 4.5898006375169853 142 121 90 1.3519012459471598 14 690 15 534 17 690 18 534
705 -0.97345144154349017 -3.1462394317026301 8.4789667408990947 157 154 139 0.3947852967524888 1 154 3 114 2 142
678 -2.2441776058207776 -1.9805606575011376 8.3350318797384872 183 176 160 0.20373177770196355 13 609 1 837
137 -6.7999992710023935 -0.20071427125694663 6.2593592006759886 149 142 134 0.49837246879949365 14 537 17 537 15 367 18 367 11 228 7 414 4 310
165 -2.8024667891615818 -2.110372339431934 4.684862533363515 208 212 189 0.45841723350633395 7 466 15 535 18 535
706 -1.4196879567510807 -2.6251921027924183 8.5782375766015395 140 125 104 0.3435085779989932 1 224 3 159 2 164
679 -0.730893493354557 -2.6401616298990196 9.0765524907366224 171 164 154 0.53195310968891218 13 613 1 840 3 668 21 338
167 -2.2268230428459281 1.237804781492736 7.2146946148250901 187 171 158 1.2553662689620542 14 716 17 716 15 544 18 544 16 680 19 680
708 -6.6554341124204903 -0.46095726940786602 6.4474072843718711 161 159 144 0.46617894767036705 9 421 3 191 21 368
681 -6.5839072467420525 -0.3671919629236931 6.4118899550476378 198 192 178 0.27013808413920221 10 754 13 648 1 872 3 753
140 -5.0927254281370899 -0.82941265694165478 6.9926326685842559 205 202 187 0.46857833097481838 14 524 17 524 15 376 18 376 4 245 6 519 16 358 19 358 10 628
168 -0.93055235144742332 -3.3146380474129025 8.3982004245777784 187 187 185 0.64104400294086983 14 719 17 719 15 545 18 545 12 348 21 766
709 -1.6566417203152974 -2.2894239268649024 8.6546672519319898 136 119 93 0.30732612481116101 1 621 10 387 3 254
682 -3.6602110399729106 -1.3193288079899403 7.6116526352614997 144 141 132 0.70602022981889645 8 341 1 875 21 652 2 969 20 603
141 -4.1918401670781549 -1.113406059096538 7.3786226079544983 135 134 129 0.090420431482205785 7 326 15 381 18 381
169 -2.2486685343099473 -2.0238333504502886 5.0006536611195269 199 201 187 1.3840976455520415 14 729 15 564 17 729 18 564 12 356
710 -2.2518480139172961 1.4103866873538262 7.033096197065495 31 17 14 0.32490280957567141 6 189 3 403
683 -0.60279251556451352 -2.658515414931419 9.1397267243729328 132 125 114 0.63640198720998731 6 468 10 715 1 878
142 0.48137111627454809 -1.6370314254480349 10.496955679254956 71 73 70 0.39442090993251033 7 250 14 432 17 432 15 386 18 386 11 232 12 171 4 267
170 -2.499808651955624 -2.6107462720078867 4.547133676148575 209 204 184 0.53440447304547434 15 566 18 566 12 358
175 -2.4413235294151137 -0.01284987697023765 7.110771649057166 109 0 64 3.1054508150093154 14 745 17 745 15 578 18 578
716 -6.3770027387387564 -0.56799638084851423 6.5540290786210846 159 151 137 0.26927826277823674 9 586 3 517 21 372
181 -4.4282528246966555 -1.0781114162622856 7.29020965118172 183 176 158 0.46375619854286093 7 16 11 12 12 23 4 119
185 -4.926802342837604 -0.92526807670647515 7.1114120541353323 121 112 97 0.10546464411737083 14 249 17 249 11 92 6 131
726 -1.3049753204948158 -1.1527568184390493 9.5627839848902276 47 32 13 0.65993306917297057 1 681 3 592 2 396 6 320
186 -3.9721169334923685 -0.75989822063057866 7.8810801539123316 141 136 132 0.69052613828446618 14 258 17 258 11 101
727 -1.3002877112024516 -3.2479559435347145 8.1554178180551489 150 144 130 0.51434805342029954 1 733 3 629 2 710
192 -7.3518866872798219 -0.17083133215835486 6.148125410808662 193 186 176 0.17907522064642878 15 272 18 272 11 148
733 -0.58563569978336172 -2.6371320265698914 9.173691068658929 175 169 155 0.31735889566836373 1 841 3 723 2 757
289 -5.4623501291074241 -0.80535855213030105 6.8867703507953548 188 178 168 0.26750505511394645 15 65 18 65 4 45
830 -5.7098593152336852 -0.83274705368441249 6.8353834637371307 180 176 167 0.22236541589440942 2 861 3 651 21 597
803 -5.8508802436851441 -0.76683200000057872 6.7630804308402839 197 193 182 0.32852131245174265 2 217 21 123 20 96
262 -7.3390716630190926 -0.065865038870418779 6.0676547524177629 195 187 168 0.25043827205468983 15 474 18 474 12 256
804 -5.8099160005859725 -0.6867704717576103 6.8303153790590247 108 100 89 0.43368214011456468 9 591 21 127 20 329
263 -6.3700190101965166 -0.35317266427948218 6.4458564900624591 150 147 142 0.47749768175430995 7 448 12 260 6 514
805 -4.7601787716173209 -1.1426525414922093 7.2692927016581672 174 171 162 0.33043801820611568 2 226 9 382 21 142
264 -1.1910138714551752 -2.2007921372488211 8.712452735292171 91 78 59 0.22777229789005365 15 357 18 357 12 272 16 593 19 593
806 -3.5732737630406297 -1.3414867889083406 7.6892016977474995 181 183 180 0.61186849373988406 2 262 9 81 21 155 20 129
265 -1.1490804852344385 -0.98086614234964697 9.8740070291766777 89 76 57 0.047879111726770673 15 455 18 455 12 279
807 0.49223437035459267 -1.6689659519404003 10.483354363896177 142 141 136 0.1819591984283061 9 172 21 189
266 -2.1326490127741886 -0.56835197468628829 9.3471557161638952 129 99 65 0.93465036397481782 15 454 18 454 12 297 16 556 19 556
809 -4.8398234961084983 -1.3862577094991866 7.0556263990714436 158 159 153 0.092484570401919597 2 552 21 324 20 295
268 -7.1364181442043808 -0.045430363980066446 6.1389984173867562 149 146 139 0.34067261545474581 15 518 18 518 12 304 16 605 19 605
810 -4.6596329070707379 -1.1888038722586813 7.3296847746813931 144 142 134 0.16224313394587336 6 254 21 328 20 110
269 -7.7302827078675751 1.4653920929379738 6.8611029805148664 195 183 167 1.5039389904699296 15 527 18 527 12 311 6 587 5 834
813 -4.4665638123556661 -1.2412254337593263 7.414061975732924 182 182 172 0.30737642305775076 2 745 9 389 21 390 20 315
814 -3.6525469126351231 -1.2372111572708442 7.7108356979656607 193 192 188 0.48967990187630833 9 413 21 395 20 322
273 -1.3632333144001032 -2.2253100754038235 8.7333378437865239 148 119 87 0.37670629946048545 15 514 18 514 12 325 16 660 19 660
815 -3.6525469126351231 -1.2372111572708442 7.7108356979656607 193 192 188 0.48967990187630833 9 414 21 396 20 321
274 -3.144629845746822 -0.67776601617876031 6.1305709370494865 139 135 126 1.7275952918005795 15 561 18 561 12 344
816 -4.47225327357173 -0.53403348155380381 7.7015153503958338 165 160 155 0.32332855550512646 2 779 21 402 20 485
817 -3.966162696226724 -0.73166632397112019 7.916241160446992 70 69 65 0.17578040064135816 9 442 21 405 20 151
276 -1.6608152321710667 0.1928430369326003 8.0979605992380694 103 94 77 0.25312831932198704 15 551 18 551 12 354
818 -3.5427111786270853 -0.85386094156396053 8.1165539318380038 121 118 113 0.53004841580525597 9 443 21 407 20 347
819 -4.9563943780894206 -1.9712986944368662 6.4767695754336145 177 178 172 0.49356388482973107 3 457 9 357 21 474 20 411
278 -2.4173734568929715 -2.3471476155864046 4.9780447414557178 96 0 40 0.98771657566847093 15 569 18 569 12 360 16 700 19 700
51 -4.3940307926504953 -1.0880792365434262 7.3157503233010619 203 199 187 0.24212660889608234 17 573 7 325 14 573 15 379 18 379 12 215 4 247 6 487 9 671
822 -6.2574596857357809 -1.0507530780119498 6.2843763519623224 177 178 172 0.36830689410009443 3 484 9 552 21 483
52 -5.8468282654195693 -0.75864131043653671 6.8062732947389657 179 174 170 0.57522041321143824 17 576 7 382 14 576 11 265 12 197 4 290 9 731 16 443 19 443 21 649 20 667
823 -4.0956527036126591 -1.38558017020235 7.5203832681061975 178 176 169 0.59529482466458405 9 562 21 491 20 298
53 -5.6078161690397081 -0.65356197193691457 6.7793249193132539 208 198 186 0.19258999195716892 17 578 7 395 14 578 15 374 18 374
594 -2.2018593811903653 -2.3950273798892661 4.6741287689433459 28 0 0 0.24682313373410752 10 819 8 453
824 -4.0437790303220398 -1.4270037228527999 7.5720250465763614 164 163 158 0.41838536799576642 2 751 21 492 20 300 9 563
54 -5.3689395666680308 -0.74793731295724264 6.8984110661492188 204 194 182 0.35016686688609888 17 579 7 397 14 579 15 438 18 438 11 273
595 -2.2018593811903671 -2.3950273798892661 4.6741287689433477 28 0 0 0.24682313373416939 10 818 8 452
825 -6.1029503017459454 -0.69868000290508658 6.6915386502180416 168 161 145 0.30602066341491796 2 858 3 524 21 505
849 -4.5234586911669474 -2.2173344654772569 6.547328534333217 153 155 154 0.27391982520003971 6 229 21 53 20 265
308 -2.0491966929215248 -1.9420045735326701 8.3710103684658606 164 149 130 0.92947204327540156 15 354 18 354 4 253 6 269 16 463 19 463 10 535 5 630 3 294
791 -2.167442560805168 -2.1965727253769334 4.3900665708674147 79 1 43 1.2677440651435561 6 639 2 1098
250 -2.3458186135737784 1.2550480647365063 7.0900962452138865 116 92 87 0.30120164109974878 14 489 17 489 12 179 16 403 19 403
850 -3.9425721012600987 -0.62533710662271602 8.0195679704626883 157 157 159 0.1960631311646451 9 455 21 409 20 356
309 0.42165942248874311 0.12617806289949224 8.4801455423539966 141 136 132 1.04840845291524 14 282 17 282 4 271
209 -3.9212081017431237 -1.263028972374757 7.5151055097846537 205 197 183 0.41423974819947218 7 380 11 279 9 727 20 547
750 -1.1415535792729534 -1.4615847708157186 8.7352207215394628 0 0 0 0.4368809735769551 6 644 10 826
723 -4.3623751624577967 -1.2938409862685767 7.440487404856535 213 206 189 0.70447100325171819 9 388 3 544 21 331
792 -1.7876068048868532 -2.2482173271667532 8.5786625003059722 126 110 92 0.56638241842422699 1 905 3 784 2 970 11 247 4 353 6 534 10 741 5 829 8 348 13 689
251 -3.1569740740384749 -5.3758270418234693 5.0763817787188055 111 109 110 0.67694558125910365 7 216 11 239 12 183 6 500 9 513
851 -5.039203305062343 0.40910829960073491 8.1186139289377568 83 84 76 0.26502404032274357 6 433 9 482 20 377
310 -6.7138208515909286 -0.34692176746466152 6.3791435183573642 163 155 138 0.36967851014622605 14 588 17 588 4 286 16 350 19 350
210 -3.845149886773696 -1.2812330525732443 7.5495327643628451 207 201 185 0.49971611851840547 7 315 14 566 17 566 11 281
751 -0.95583517629519599 -3.2720606088500093 8.3991791115052461 122 122 122 1.4181304976562807 6 614 10 797 1 962 3 861 4 449 11 379 10 802 2 1075
724 -1.992670494633654 -2.2081525233003525 8.4658870163065814 149 140 123 0.51171973045946362 5 477 10 147 3 555 2 271
793 -1.6232594041757402 -5.7901540569374212 5.8560477642335504 129 131 130 1.2656402274741712 1 485 3 427 2 482 11 69 12 87 21 18
252 -4.9027636187364436 -3.9745568056279472 4.9403821305769888 154 155 149 0.42704367071278948 7 422 15 404 12 185 18 404 6 439 16 566 19 566 2 909 21 623
852 -2.8195005638120381 -0.54765528860126278 6.1959521972664691 230 73 142 0.21858271758241427 21 335 20 445
311 -6.4234922366254024 -0.56160635436858453 6.5514385458709059 166 162 155 1.4337906342816307 7 439 4 287 6 507 16 515 19 515 10 702 5 786 13 544
211 -6.5562776979616908 -0.28617735783800485 6.3799558908479295 157 147 135 0.68865419342981804 15 479 18 479 11 285 12 259 4 391 6 515 10 619 5 790 8 308
752 -2.0230891148246357 1.66138827189992 6.7512724876963741 72 54 40 0.34450942416156677 6 194 3 699
853 4.5640654981145019 -4.3406068292935709 11.349158246712619 165 167 166 0.26443832918789806 9 715 20 527
312 -5.2453506698508789 -0.78052256026803479 6.9289172282678972 194 186 173 0.31367319728525561 14 581 17 581 4 294
212 -4.0021044969572417 -0.6811480154038847 7.9069603830066706 151 149 152 0.63513003141184787 15 382 18 382 11 288 9 744 2 978
753 -2.0230891148246357 1.66138827189992 6.7512724876963741 72 54 40 0.34450942416156677 6 195 3 700
795 -5.8314653074327554 -0.76659858121582425 6.797181943704298 159 157 143 0.55895125738170792 13 604 1 830 3 755 2 963 15 414 18 414 6 508 16 444 19 444 10 624
254 -6.1830229946365174 -0.45198867023210976 6.5722323032226138 200 193 177 0.25467781179138227 15 432 18 432 12 205 16 442 19 442
854 5.2204520864746895 -4.4837135315355381 11.640934073707806 111 113 108 0.27399758860386153 9 719 20 528
213 -4.4031874649871696 0.19506742086660134 8.3530761085901339 134 128 116 0.82816790623950121 14 595 17 595 11 294 4 326 15 453 18 453 6 493 9 748 21 610 2 939 20 636 3 731
754 -2.3098038403749483 -0.9413867496074384 5.7660258818347723 66 0 14 0.60926195320799859 1 992 3 890
796 -2.4988630950056701 1.1402729249860415 6.9691895376016664 0 0 0 2.2248668074587532 1 849 3 769
255 -4.7045569404814991 -0.93047094853524648 7.1828255043462317 151 147 143 0.19415007293666844 7 388 12 213 4 369
855 -2.7247302769161328 -1.2561711313238664 5.5366716165925425 152 0 87 0.5682914105787048 21 758 20 749
314 -2.4180099436809965 -1.9526832000550485 8.3081813186716982 181 181 175 0.73104110568835923 12 218 4 301 6 458 16 539 19 539 10 636 5 797 1 762 3 657
55 -5.2985956098909739 -0.76489035985019882 6.9197534453528613 205 197 186 0.44829365126372872 17 580 7 398 14 580
826 -6.1029503017459454 -0.69868000290508658 6.6915386502180416 168 161 145 0.30602066341491796 2 859 3 525 21 506
798 -6.5859356237698137 -1.9351096969454007 5.2973193095071105 85 86 81 0.025720359667523604 14 25 17 25 21 45
257 -1.1770221045863019 -2.2535358968672434 8.7702611939330346 148 125 94 0.64176846734800341 15 356 18 356 12 227 16 552 19 552
857 -4.8793629052554914 -0.92642452679280918 7.1450553563954058 169 165 160 0.92933067196004293 17 251 7 245 14 251 15 179 18 179 11 160 12 63 4 190 6 132 9 669 20 455 2 616 21 386
316 -0.64193705497760856 -2.5261632336850486 9.1321481382659222 142 126 103 0.74657879682182848 12 164 4 305 10 541
216 -3.9612478431170897 -1.2019406561030621 7.5037546506442219 133 130 125 0.32108054963612848 14 616 17 616 11 312
757 -1.6462034192228048 -0.5285000211046692 3.6708861241201864 156 148 137 0.38883060751531073 6 578 2 44
730 -1.9789890356059723 -2.1779925618427183 8.4778053518055181 175 166 147 0.54275991383586042 1 768 3 664 2 756
799 -4.4840231564066722 -1.3146487088458734 7.3174447700888381 200 201 195 0.82606346129569941 9 70 21 85 20 81
258 0.4791988282600495 0.12826643889612133 8.5157024432584052 22 11 5 0.6940779387289413 15 400 18 400 12 240 4 272 6 498 10 728 5 843 16 564 19 564
858 1.3269314680622286 -3.8469236532218822 9.5249942728938688 150 149 153 0.59456276507686334 14 691 17 691 9 837 20 728 2 1077 21 760
829 1.5877748979585853 -3.2812109534797296 10.047705643148277 180 180 174 0.41405338302489769 2 875 9 725 21 589 20 525
288 -6.7840053089144607 -1.6641565523859088 5.3163942663546067 100 96 93 0.47387509036304487 15 150 18 150 4 27 6 227
800 -4.4607892334273371 -1.3319678687348091 7.3394452023313645 140 141 135 0.59328479695846126 3 220 9 73 21 88
259 -2.0359665278903281 1.5832438895023966 6.7242862285134795 107 91 78 0.74045808472227836 11 297 15 458 18 458 12 242 4 334 6 543 16 562 19 562 5 771
859 -4.1223268935595572 -1.9644083947009845 7.1056115260571113 165 165 162 0.46564272605815787 2 847 9 528 21 477 20 425 7 232 11 137
318 -0.9069774009895798 -3.1904114264938852 8.4661328141811634 173 174 169 0.67981438460280474 11 299 4 338 6 530 1 916 3 777 2 958
59 -6.6063018479698377 -0.5075565957264988 6.4557395396227477 174 170 161 0.6464819414604116 17 585 7 391 14 585 15 412 18 412 11 306 12 195 6 506 9 777 16 514 19 514 10 701 5 785 8 309 13 644 1 873 3 779 21 683
801 -3.9809354083138682 -1.5201238079148789 7.5547402025208994 204 205 199 0.57353589743520439 2 181 21 89 20 86
260 -2.0383965036982543 1.5862352278995622 6.7349902078069928 107 91 78 0.59350891104704429 11 298 15 459 18 459 12 243 4 335 6 544 16 563 19 563
860 -4.1239145226892697 -1.9655737463826934 7.105628483629701 165 166 162 0.6119763933052883 2 848 9 527 21 478 20 424 7 231 11 136 4 228
219 -6.9280373718007935 -0.23104096399416651 6.2231375925789294 205 193 177 0.73528322945586888 15 519 18 519 11 347 6 553 10 753
760 -4.8074728913545304 -0.94011772797137094 7.1500939100712397 53 43 37 0.50649533728862184 9 102 2 224 20 106
831 2.1582870804137686 -3.4992705548383483 10.308292286675622 183 180 171 0.3911400027799723 9 764 21 679 20 593
290 0.45641356674953704 0.10291020726083699 8.324391725366338 134 130 127 2.2597092939890207 11 25 4 78
848 -2.1494063956760048 1.090000242367076 7.3868249595794664 135 128 123 0.072214130372231691 21 230 20 215
307 -2.3139917924058202 -1.9823669864972198 8.366157115903345 165 165 157 0.81900868542716343 12 220 4 250 16 455 19 455 8 313
207 -1.1781397448106155 -2.2618137651074433 8.7885054368441153 160 131 97 0.27632917746935609 14 562 17 562 11 254 4 355
802 0.9094732114692804 -3.1066792811289963 9.7802308133581164 169 170 162 0.25400291926000867 2 761 21 103
261 -2.0006528237637058 1.5838200882980642 6.7476134302443516 188 172 159 0.72185734174925087 11 238 12 244 16 490 19 490
861 -2.5831751743532578 -1.8145037936985089 5.2759844715099113 211 202 187 2.078420289629876 21 789 20 790
320 -0.29046435535071186 -2.7199029780615875 9.3007208059390045 162 157 151 0.39852244103394918 11 250 4 359 6 513
220 -7.6532069290133924 1.335725938498626 6.8361967439552327 142 136 129 0.29657589306360349 14 685 15 508 17 685 18 508 11 351
761 -2.0446390325611197 -1.9319137293388939 8.3577837164042972 188 174 151 0.39284152037403564 3 296 2 272
734 -1.978816290384861 -2.417106277465833 4.271700304881529 134 117 91 0.95365513369191446 1 856 3 741 2 908
832 -6.6069469166409869 -0.50872247301854601 6.4583798273344915 170 162 149 0.29548087515735733 3 780 11 307 21 684
291 -3.3145682087500479 -3.4679984810979536 6.514486302171747 136 136 134 0.34856140840267624 14 220 17 220 4 97 16 333 12 51 19 333 5 401 1 58
788 -5.7268844623202142 -0.71502980258625548 6.8276906486539737 195 189 176 0.82239155520125296 3 805 2 1038 21 736
247 -6.8631792238868918 -0.35375653328345502 6.3719279575646555 196 192 183 0.45533815109320802 11 150 12 150 4 284 16 348 19 348 5 442
847 -4.8023139615635007 0.32412107593427641 8.1766530858465938 132 127 123 1.1003313637343488 2 647 3 363 20 207
306 -6.4358898352246205 -0.36565184195617428 6.4310381634489744 186 175 163 0.22556565021863303 15 431 18 431 4 239 16 353 19 353
206 -0.67440300533018005 -2.6367521447854414 9.1058444258508509 152 145 129 0.50919353263850475 15 358 18 358 11 249 12 269 14 558 17 558 6 535 10 757 13 692 1 927 3 786 2 973 21 639
846 -4.4231641313406111 -1.3342781055096724 7.3642692495472666 189 189 187 0.25952817600824596 2 240 9 387 20 83
305 -2.0483183149286668 1.6053577610515903 6.6962361624433289 174 156 146 0.55877673583087717 12 131 15 319 18 319 4 225 16 405 19 405
205 0.48052742377313995 0.12644068081050652 8.5247315610302152 10 2 12 0.39935289182898737 7 282 15 401 18 401 11 237 12 241 14 483 17 483 4 273 6 499
746 -3.0463945257118192 -0.2499183692565895 5.514424377240065 199 195 186 2.2618811817217863 1 988 2 1100
719 -5.9849621130513011 -0.73934096666807614 6.7292855920494663 157 150 131 0.49160321090852688 9 398 3 528 2 739 1 599 21 507 20 450
845 2.6255512807421879 -3.788058503726714 10.498283874418251 182 191 186 0.66584051190765814 9 59 21 499 20 78
304 -5.268824916763907 -0.73820997461500526 6.92282306321348 138 135 126 0.13615707336816429 14 449 17 449 4 206
204 0.48101973214647153 0.12491570342720509 8.5270454698237153 10 2 12 0.32162782876211482 7 281 14 482 17 482 11 236
745 -2.8738798680479185 1.0994893456740642 6.6037937552901802 181 165 150 1.1388816980668155 1 977 3 879
718 -5.9842138742741762 -0.73790837848066038 6.7275788544235926 157 150 131 0.4722967046878459 9 399 3 527 2 740 21 508 20 451
843 -4.9106225910905943 -0.93939186996916657 7.1157520546853883 113 106 97 1.141320769295221 6 130 3 540 21 599 17 619 7 384 14 619 15 443 18 443 11 275 12 264 4 351 9 732 2 925 20 600
302 -2.1829294334798641 -1.9475774405041344 8.3703977346308243 127 110 97 0.67501243650332066 15 170 18 170 4 201 16 380 19 380 10 145 5 492
202 0.72007647132276253 -3.200083731596493 9.6561218107195224 184 186 181 0.30234556530611495 15 343 18 343 11 198 6 455 21 487
743 -1.8022651426715044 0.45796059028468572 8.3453571106530475 102 95 79 0.31536428300953778 5 891 3 870
840 -2.4054137052046265 -2.2100712602075725 4.5161990175917799 117 1 73 1.2792849933281816 9 894 21 785
299 -2.3150960617716114 -1.9035485157248613 8.3647365344223008 134 120 111 0.67013224400898952 12 117 4 195 16 377 19 377
199 -0.20659710494184652 -3.5100475992952469 8.7461437959085782 142 142 142 0.44831430538239159 15 410 18 410 11 192 12 246 4 230 6 450 10 691 3 713 2 712 21 480
740 -2.4314347218371437 -0.63037925085346469 5.5227432868678248 181 114 167 1.4374872045281892 1 895 3 825 2 1035
713 -1.8264391351619744 -2.492667737630073 8.3612274016111456 149 142 123 0.54171198315738445 13 536 3 496 2 546
837 -4.0166557391484075 -1.2717556900855755 7.4763397363175477 199 196 181 0.99228871522938 2 1040 21 721 20 733 9 858
296 -2.4023990232147532 -1.9954671549335177 8.3018964651658855 148 149 143 0.51442143583813815 12 64 4 120 16 374 19 374
196 -4.8894532720620427 -1.0065981220481026 7.1774604057176088 205 195 183 0.72999569371557904 14 514 17 514 11 159 12 115 6 369 9 403
737 -2.3824102878948326 -2.1645235145326032 4.390592048959987 147 51 115 2.7688882542766766 1 857 3 772
836 1.1552208919330702 -3.709308226787607 9.4978174064214116 155 155 153 0.51490688944501339 2 1036 9 800 21 706
295 -6.0331824375017886 -0.58410208120617069 6.6654211197793787 195 185 172 0.42389848669642466 14 41 17 41 4 114
195 -5.7543400453809532 -0.57311270908205048 6.7088265056187577 153 146 128 0.063525682335474981 15 372 18 372 11 155 4 258
736 -6.2718235971645964 -1.034275857517061 6.2843100534828293 178 175 168 0.27572069131769322 1 812 13 533 3 749
835 -4.1407890249710988 -0.65713606534069768 7.8533097082041943 157 159 158 0.25616206101118444 11 287 21 689 20 629 9 743
294 -6.0353640823710304 -0.56107773094010571 6.6614139199095748 156 146 136 0.37533536837927439 15 173 18 173 4 112 6 120 16 166 19 166 5 90
194 -5.8300925384914732 -0.70419282951504825 6.8108585758710642 203 197 185 0.3635944335613383 7 332 15 276 18 276 11 153 12 107 4 241 15 348 18 348 6 304 16 354 19 354
735 -6.2780927484082412 -1.0362378728586032 6.2867791555098114 178 175 168 0.31159969804440496 13 534 3 748 21 634
834 -3.6143675654625174 -1.4009679379275544 7.6389571971641725 200 199 179 0.83672153967123275 9 770 21 687 20 602 7 435
293 -7.2643671576683788 -0.15231284382590443 6.1779443043577933 165 157 144 0.14364291176218 15 171 18 171 4 111
833 -5.1046865111977944 -0.866273416646825 7.03642426671842 211 203 190 0.44233051612248264 2 966 21 686 20 599
292 -6.6743489724964276 -1.7909023262755714 5.2917442644926522 78 73 69 0.33207544203649708 11 130 4 102 6 223 10 305
56 -5.1976914764271349 -0.74428583827855688 6.9412839603317371 156 152 144 0.53308285170318681 17 582 7 399 14 582 4 367 16 527 19 527
827 -3.7646033523938565 -1.320520106241184 7.5806112476875454 207 203 191 0.3600007832318588 2 596 9 565 21 514 20 460
286 -3.3307279227553193 -3.4699161252661783 6.4989353497162554 185 185 183 0.54750256150573484 14 16 15 40 17 16 18 40 4 15 16 144 12 10 19 144 10 33 5 16 1 57
787 -4.5027963396237833 0.22771476164859361 8.2986133445511392 114 104 95 0.60252124288179532 3 811 2 1013 21 695 20 681
246 -2.2318399199330772 1.3250137198745002 6.9785453664137318 169 152 144 0.56298785108581662 14 553 17 553 12 129
785 -2.4732148037659343 1.1306855847023498 6.9168800493164957 183 139 187 2.9713898902230795 3 768 2 990
244 -6.7962778419926 -1.6658308687993566 5.3190270150937549 158 159 153 0.35428345237466663 11 134 12 95 5 409 16 330 19 330
784 -4.5783046849016653 0.25323040823519127 8.2772262856410528 120 110 100 0.23644257824299281 3 790 2 989 21 658 20 635
783 -4.6576109863082769 -0.072669553551375943 7.9407509941708128 117 108 99 0.19742076003744047 3 763 2 985 21 657
782 -4.1399211368047064 -0.65344606705348818 7.8448865609745182 146 143 144 0.3981127949085132 9 742 11 286 2 977 21 688 20 628 7 403
241 -1.985823539029 1.6080667868345087 6.6949193536406186 175 161 148 1.5229730459613977 15 207 18 207 12 80 6 340 16 210 16 211 19 210 19 211 10 437 5 258
781 -0.99370449081473045 -2.5564885158799875 9.1563702357545989 161 145 120 2.2910809019302492 3 807 2 972 21 677
240 -5.7874538488909844 -0.59662181267468661 6.7424692342843988 154 148 132 0.39211283484477905 15 178 18 178 12 62 4 186
780 -4.7314762591466861 -0.98098007035899004 7.173211831867893 196 189 173 0.5773963838056283 3 757 2 926 20 545
239 -5.7874538488909844 -0.59662181267468661 6.7424692342843988 154 148 132 0.39211283484477905 15 177 18 177 12 61 4 187
779 -5.9947902795343673 -0.76461909512739257 6.6957046413452161 186 182 171 0.47897709112809039 1 749 3 754 2 921
238 -5.7768510668510658 -0.63804605893307675 6.6699558347413426 179 171 160 0.90206842069133708 15 176 18 176 12 60 4 116
777 -3.9039729408941297 -1.5853498300739464 7.5575003656711619 172 173 167 0.55650187907260784 9 554 2 854 21 493
236 -1.6588231261090081 -5.7980233246391171 5.8184945029453248 103 103 101 1.0487131166671242 11 1 12 45 2 12
774 0.47759188324576723 -1.6437475106463673 10.49901503708973 4 3 0 0.55762033974639003 6 431 2 788 21 423 9 446
773 0.47693032321927098 -1.6416662744028732 10.48801017279032 4 3 0 0.7537720076610922 6 430 2 787 21 422 9 445 20 358
772 -4.6094292903562319 -0.31683424392699622 7.7868148554294008 81 72 63 0.35043863887370819 3 580 6 145 2 785 21 174
771 -3.6398886927559846 -1.1659702192111077 7.7510664397168165 165 160 156 0.66405113667236826 1 628 2 773 21 400
256 -2.0859510805771095 -2.0278414854976536 8.4376497714351455 150 122 92 0.9025208788008996 15 353 18 353 12 223 16 541 19 541 10 534 5 631
770 -0.31842773684208425 -3.3784732423608537 8.787300301215641 146 147 141 0.50879482382958718 3 634 2 719 21 318
229 0.52860284502039701 0.14953493674879453 8.9904200442372577 143 138 137 0.32776021362903934 15 317 18 317 11 115
769 -3.9595054941534626 -0.7570919427630044 7.9178591462856023 137 131 125 0.3108178236611181 9 162 2 628 21 166
228 -2.4022423431391124 -1.5491870421783602 5.2561696227888994 211 210 189 2.1824598198648557 7 556 11 404
768 -4.616373749567261 -0.98261561270451836 7.2201796114262207 114 107 99 0.563218473656528 3 279 2 618 20 114 9 404
227 -5.2802849039384112 -1.0707940845773787 6.7891598555232742 197 193 184 0.86730149171586268 15 571 18 571 11 401
766 -4.3575033216612304 -1.2913985426896022 7.4355011945266956 197 195 183 0.56423832117821104 3 545 2 583 21 332
764 -2.4281545722465117 -2.1950740133234192 4.6066888531965899 151 23 110 0.29338377558594497 3 433 2 491
248 0.48141536762253456 -1.6376636771313651 10.503001790705875 67 68 62 0.65386333101720451 11 231 12 172 4 268
762 -4.6517937349737108 -0.96197735774159632 7.1985530893476621 121 110 106 0.3469961161926533 9 108 2 357 20 113
221 -1.9380663466176853 1.228328125763551 8.1414457302853211 132 130 133 1.8295660416766986 17 636 11 353 14 636
755 -2.3098038403749483 -0.9413867496074384 5.7660258818347723 66 0 14 0.60926195320799859 1 991 3 891
237 -4.390456015639562 -2.3018203037962697 6.5408840694446582 164 165 160 0.49722800241609072 15 156 18 156 12 55 4 107
744 -0.75647870742511247 -2.5510750783838283 8.972799861270099 0 0 0 1.3633131465803503 1 973 6 622
203 -7.2794388392423937 -0.09240855771567702 6.0814833865997295 194 183 165 0.46255606915903852 15 427 18 427 11 227 12 199 6 407
742 -2.0308378239662912 -2.5628344324135384 4.2557475717452249 175 175 175 0.55873229959272319 1 966 3 866
201 -0.32362515636062772 -3.3323837481715795 8.7407652786563492 155 155 153 0.10722576690601532 15 342 18 342 11 196
741 -1.8924426524876661 -0.69204247446905631 6.4974474396039961 197 194 179 0.64030720203377212 1 951 3 851
200 -0.32487217439027843 -3.3453026228725737 8.805583021879416 155 155 153 1.3104552017683695 15 341 18 341 11 195 12 191 10 692 6 452
739 -2.4314347218371437 -0.63037925085346469 5.5227432868678248 181 114 167 1.4374872045281892 1 894 3 824 2 1034
198 -3.7239430426392963 -1.3027249206781304 7.5970097588724048 122 120 119 0.8472113175227548 14 435 17 435 11 163 9 566 21 516 2 597 20 320
222 -6.1195876733279606 0.94251693383002511 7.4980242494439135 190 180 163 1.7979114782593004 7 530 11 361 12 329 4 426 6 573 9 875
215 -5.7822228255661976 -0.73936536693450505 6.8493484337234483 201 196 184 0.6640124632671569 15 466 18 466 11 309 12 263
729 -0.031589409979127056 -3.1850854988680957 9.139436052583477 152 152 152 0.54899209065318688 10 487 3 644 2 549
717 -6.3554222169188641 -0.59003864313892262 6.5916855829529837 164 156 140 0.59720500576199642 9 425 13 445 3 519 21 373
715 -6.5150019723154005 -0.52477183340759082 6.4897290735538204 140 135 117 0.2934790443100922 1 240 3 515 21 116 9 122
714 -6.7787763689074279 -0.40882647886131751 6.4132093221967308 155 153 141 0.17629239066984212 9 420 3 514 21 365
48 -3.6114638980037976 -1.2210349060998573 7.7186369842701668 132 134 133 0.59802340395485809 17 568 7 317 14 568 9 673 21 653
589 -3.1994231219375475 -2.8289107764937875 7.0361036549381915 151 152 146 0.80868758139192631 16 675 19 675 5 880 13 721 1 952
47 -3.5275501161565868 -1.4433050720402738 7.7288835273951868 196 192 180 0.00014920904546905284 17 563 7 239 14 563
588 -2.0720002277135152 0.34502019164922826 7.7959640459307957 141 111 85 2.4250586199716748 10 784 5 877
46 -4.2321204265418944 -3.9790912459882684 5.4161166447965261 155 155 155 0.71264487139600008 17 554 7 367 14 554 15 405 18 405 12 186 11 241 4 277 9 707 16 491 19 491 5 683 2 836 21 566 20 500
587 -7.548555550758727 -0.065354865549755392 5.9988344716585882 189 180 163 1.1798052655309896 10 779 16 667 19 667 5 872
45 -6.8890436780583357 -0.17063839727974048 6.2111190426667449 150 143 135 0.15780519840983301 17 548 7 413 14 548
586 -9.0097081008253923 0.43912490200870313 5.3984092872226332 194 185 168 1.1312806748635087 16 664 19 664 5 870 8 408
44 -3.4925669996562987 -0.14255738377881205 8.7303424519088804 107 103 92 0.4080556559734424 17 543 7 363 14 543 9 747 20 632
585 -9.6859590155943245 0.69253176106172865 5.0108876899254788 195 186 171 0.80103928333814944 16 663 19 663 5 869 8 407
43 -6.435231926451209 -0.36549881051004202 6.4347363880165371 204 192 177 0.23888089417468847 17 539 7 348 14 539
584 -10.276895624289523 0.89351064412285652 4.6944364986358185 191 181 169 1.2640915514259354 16 662 19 662 5 868 8 406
42 -6.6662740329253349 -0.24508060123706024 6.3123292344733075 149 145 133 0.78716975508916653 17 538 7 347 14 538 15 291 18 291 12 204 11 316 4 311 10 502 5 719
583 -7.8884574101001865 0.059901462189846766 5.8541384235253684 198 185 170 1.1469957547425029 10 767 12 320 16 649 19 649 5 861 8 410 13 686
41 -5.0489134149799044 -0.8107190412023777 7.0209487619516118 148 145 136 0.7492610920672782 17 525 7 385 14 525 11 311 12 210 15 439 18 439 4 316 6 484 10 517
582 -11.314330194108038 1.2757798646195933 4.2114735914942631 194 179 160 1.4372959636330502 16 646 19 646 5 859
40 -5.3983546000090543 -0.69808971657217511 6.868547403350787 144 140 131 0.54011092283805229 17 523 7 337 14 523 15 437 18 437 11 214 12 153 4 261 16 526 19 526 10 515
581 -7.0274970560290093 1.1114736206805138 7.111955388578302 140 132 120 1.4772322450804258 12 312 5 854 8 384 10 775
39 -5.7888383061333952 -0.67603195451465348 6.7977873713232393 118 111 103 0.87158235223766001 17 521 7 333 14 521 11 212 15 416 18 416 12 207 4 292 6 305 16 522 19 522 10 358 5 725
580 -12.107836368662001 3.0342099684324393 4.9287866972268608 193 169 144 0.27424135515859377 16 625 19 625 5 852
38 -5.8439162338677857 -0.66189290089398412 6.8006985406098472 97 96 91 0.24530301282255196 17 520 7 334 14 520 15 347 18 347 11 211 4 242 6 303
579 0.47679327080386186 0.13095989203713432 8.5210574086043565 6 2 5 0.89474691465292455 16 565 19 565 5 844 10 729
37 -3.5373023735352684 -0.88420345357359975 8.060403539162202 119 117 112 0.075802527665128433 17 517 7 341 14 517
578 -2.419849659458897 -0.44626842766868391 9.1549199677162019 155 147 128 1.8873542283443665 6 557 10 746 5 840 8 360 8 389 13 680 16 618 19 618
35 -5.9808918330295811 0.93731946578321101 7.4497789848075584 177 161 146 0.011668781653919573 17 488 7 365 14 488
576 -12.272490773917305 2.9428076441931088 4.8825539565788318 103 94 79 0.11430058628132589 16 624 19 624 5 830
34 -6.2363271291610021 0.93776719320993418 7.4594180818038396 167 151 135 0.27028531436451952 17 486 7 291 14 486
575 -10.503389174490223 1.0524685004878749 4.62673808997965 149 138 129 0.79560222045703632 16 599 19 599 5 821 13 641
33 -3.4784773329203391 0.17590907678261747 8.4005317357121996 150 134 118 0.053159748173340682 17 475 7 199 14 475
574 -11.130318672814724 1.2670503533377766 4.3422218492156599 151 141 131 0.64178773827121394 16 598 19 598 5 820
287 -6.5860105414055132 -1.8867354711702897 5.2634923700258325 146 143 138 0.64283814024923724 15 154 18 154 4 21
30 -5.6995331592937495 -0.58807049271277223 6.8090534326238981 155 148 138 1.8128621839113452 17 460 7 260 14 460 12 152 11 213 4 315 6 422
571 -9.0997159859554948 0.6051318920065063 5.2306291206513844 151 143 132 0.52555110971588992 16 505 19 505 5 782 13 599
270 -2.1099315140048409 -2.588488320593195 4.8220104323928989 69 1 18 0.55933821444015808 15 462 18 462 12 318
13 -5.3353938360350162 -4.1731933854212881 4.470483998776527 166 166 166 0.58344126292647458 17 415 7 218 14 415 15 13 18 13 6 205 9 516
554 -2.3678410268301886 -0.95903943823204096 5.1087371154977639 104 14 46 0.17702891514573416 10 737 5 601
12 -7.2393398049189752 -0.15513608920594751 6.1475402078755703 175 167 153 0.081928031923369213 17 278 7 278 14 278
553 -8.0100254804202162 -0.020087475657521836 5.7952575734620169 123 118 112 0.26336206471860402 10 616 5 587 13 542 1 748
139 -5.7620909614665177 -0.57109736011922418 6.7171524136438192 149 144 132 0.35888994250701323 7 257 15 373 18 373 11 154 4 259 6 302 16 169 19 169 10 357
11 -3.5914194595722946 -0.13461937697273205 8.6954241106874139 127 123 112 0.61131936029509437 17 272 7 193 14 272 9 463 21 432 20 369
552 -3.1285114890792114 -2.9674019169548531 6.9872418592419434 148 148 147 0.47336170988146797 16 340 19 340 5 575 13 403 1 521
267 -1.9964139058028469 -3.3929495539305412 7.4873360718803532 134 135 127 0.32206650078187238 15 511 18 511 12 299
10 -3.9705500585343634 -0.76011600150003833 7.8693681520899164 139 133 133 0.73608789211434733 17 259 7 265 14 259 15 302 18 302 11 102 2 935 21 604 20 560
551 -2.765743483313813 -1.8147250261796715 8.1611297727747107 188 187 183 1.2619947354068166 10 376 5 466 8 288 16 534 19 534 1 262
9 -5.502111690848662 -0.77007981796482328 6.9154414087608869 126 120 106 0.32778792529551698 17 256 7 185 14 256 15 166 18 166 11 156 12 110 4 189 16 171 19 171 10 362
550 -8.4796719842311177 0.33605873987657608 5.5284958967095754 132 122 120 0.33171610573259619 10 345 5 432 13 150
136 -6.9306502320217191 -0.2800230074703503 6.2990800201380619 124 118 106 0.4179159715513634 7 345 15 366 18 366 11 207 4 237 6 414 12 149 16 437 19 437 10 351 3 183
8 -5.5025038055704609 -0.77116990998009405 6.9152541628398492 126 120 106 0.21342987347093259 17 255 7 184 14 255 15 165 18 165 11 157 12 109 4 188
549 -1.9795592886981559 -3.3934153613427065 7.4859676684593266 115 116 110 0.75867925930261149 6 40 16 345 19 345 5 416
135 -6.9311840844959569 -0.28003108345270289 6.2998540774575496 124 118 106 0.40574961123892872 7 344 15 365 18 365 11 206 12 148 4 236 6 413 16 436 19 436 10 350 5 439 3 182
548 -6.9878696524827646 -1.595082230448011 5.3023904251296363 112 107 104 0.35078778037750014 10 473 5 411
